ply
format ascii 1.0
comment PCL generated
element vertex 1095
property float x
property float y
property float z
property uchar red
property uchar green
property uchar blue
element face 0
element camera 0
property float view_px
property float view_py
property float view_pz
property float x_axisx
property float x_axisy
property float x_axisz
property float y_axisx
property float y_axisy
property float y_axisz
property float z_axisx
property float z_axisy
property float z_axisz
property float focal
property float scalex
property float scaley
property float centerx
property float centery
property int viewportx
property int viewporty
property float k1
property float k2
end_header
0.110736 0.23907845 0.78925037 55 44 28
-0.044979665 0.24333021 0.78996557 79 75 61
-0.021568492 0.24162287 0.79059851 53 53 50
-0.01901738 0.24232332 0.78997457 37 37 34
-0.016120046 0.24225731 0.78949243 32 32 30
-0.012371423 0.24192691 0.78951019 42 39 37
-0.0087048253 0.24201138 0.7897625 53 47 44
0.10570335 0.24219179 0.78987968 91 84 79
0.1081594 0.24300651 0.78977132 77 69 56
-0.045022916 0.2466145 0.78980482 79 74 63
0.10928897 0.24665578 0.78969991 75 66 53
0.11022764 0.24781427 0.78943264 71 62 45
-0.044829614 0.25038722 0.78974146 72 67 59
0.10934839 0.25001541 0.78984684 102 93 87
0.11048218 0.2493884 0.7894972 69 61 44
-0.044783354 0.25407824 0.78983951 73 67 60
0.10945974 0.25341445 0.79078007 100 95 85
0.11018658 0.25394329 0.79097438 94 90 81
-0.046231788 0.25731021 0.79071814 59 50 44
-0.045297526 0.2574451 0.79035836 57 54 48
0.109547 0.2561956 0.7913264 86 82 74
0.11034099 0.25616646 0.79115385 79 75 67
-0.046336882 0.2599051 0.79091167 63 62 57
-0.045752551 0.26029253 0.78983909 57 57 47
0.11116069 0.26082212 0.78974676 62 61 54
0.11245025 0.26582941 0.78847146 30 31 26
0.11261092 0.26807427 0.78866357 30 31 26
0.10811763 -0.049887434 0.79194033 97 117 91
0.11914527 -0.050274018 0.79259002 88 109 81
0.12226976 -0.050677057 0.79294282 89 110 87
0.006820044 -0.046232559 0.79236418 82 89 82
0.0073199444 -0.046399854 0.79275107 74 81 74
0.017360091 -0.047555853 0.79211885 75 96 67
0.018849427 -0.047727276 0.79373837 88 104 86
0.10496083 -0.048391473 0.79350132 96 117 92
0.1082646 -0.048558254 0.79352576 92 113 87
0.11179303 -0.048306264 0.79338783 94 114 87
0.11535455 -0.048210647 0.79355848 93 113 86
0.11866637 -0.048787966 0.79385632 87 107 80
0.12215987 -0.048976891 0.79459178 90 110 90
-0.00067894103 -0.043074131 0.79304546 102 116 89
0.0016580679 -0.044189867 0.793423 85 99 73
0.0054498324 -0.045460593 0.79330301 93 103 90
0.0079487655 -0.045570236 0.79406577 76 87 85
0.012819374 -0.043997165 0.79409385 75 90 85
0.016467258 -0.044196211 0.7930159 88 102 88
0.018216265 -0.044913609 0.79424542 84 97 78
-0.010670845 -0.039105657 0.79466045 77 85 73
-0.0087947529 -0.039776575 0.79384291 85 97 82
-0.0050679198 -0.040456451 0.7933749 86 100 81
-0.0024201158 -0.041981481 0.79326975 85 100 76
0.016893335 -0.041983839 0.79469168 91 106 98
-0.011444274 -0.038605321 0.79370421 88 93 89
-0.010230188 -0.038806804 0.79288489 86 93 83
0.029533979 0.18700705 0.7920863 39 37 30
0.033686027 0.18736129 0.79264617 64 60 49
0.036799259 0.18697265 0.79199469 75 71 59
0.02361396 0.19030885 0.79165584 44 40 34
0.027573682 0.18996289 0.79224366 67 63 53
0.030872526 0.19002081 0.79362923 64 59 50
0.034237314 0.18985271 0.79403681 64 59 47
0.03707622 0.19009237 0.79310727 80 74 60
0.040289842 0.1903673 0.79196244 74 66 54
0.018817468 0.19410659 0.79202658 76 70 64
0.023930684 0.19333789 0.79317844 66 62 53
0.026947789 0.19324456 0.79305238 59 56 49
0.030346649 0.19370669 0.79244035 59 58 51
0.033171564 0.19411129 0.7923975 54 52 45
0.03757029 0.19340843 0.79382372 78 69 61
0.041069675 0.19365461 0.79252887 75 69 57
0.019872079 0.19750983 0.79271728 73 68 64
0.023429403 0.19797209 0.79245657 57 62 61
0.026805084 0.1970031 0.79261863 44 45 41
0.029855419 0.1971681 0.79286158 68 68 63
0.033903699 0.1971592 0.79320806 64 62 55
0.037299894 0.19671412 0.79320788 68 63 55
0.040734436 0.19724311 0.79329967 73 67 57
0.043840066 0.19734769 0.79257411 74 68 59
0.047103852 0.19775236 0.79222548 86 81 73
0.014090396 0.20164996 0.79170042 114 101 94
0.0164987 0.20113237 0.79221469 79 73 69
0.019472029 0.20062447 0.79352814 64 61 58
0.022880061 0.20026684 0.79379249 66 70 72
0.026700579 0.20060194 0.79340971 68 69 67
0.030172415 0.20047203 0.79352981 68 68 63
0.033476852 0.20052984 0.79323858 78 76 69
0.036976002 0.20064622 0.79359704 74 72 64
0.040635906 0.20022736 0.79400671 78 74 65
0.044361506 0.20046064 0.79393899 77 72 63
0.047785968 0.20056368 0.79288602 77 69 59
0.051321082 0.2013974 0.79211837 99 89 73
0.01332024 0.20456684 0.79297101 78 65 57
0.016013948 0.20381771 0.79395908 87 79 72
0.018524779 0.20266971 0.7944532 76 69 64
0.023564951 0.20451555 0.79204834 86 85 82
0.026390672 0.2043006 0.79368472 85 85 81
0.030291939 0.20395912 0.79410458 74 72 67
0.033633366 0.2040088 0.79388338 75 72 65
0.037219364 0.20363697 0.79292977 75 71 64
0.040983099 0.20414263 0.79285395 68 63 55
0.044394467 0.20358258 0.79486507 83 74 63
0.048119299 0.20381585 0.79428321 81 73 60
0.05149084 0.20395063 0.79372478 92 83 68
0.054950859 0.20425069 0.79298896 90 79 64
0.057907384 0.20548165 0.79200703 85 73 58
-0.054899581 0.20813516 0.79345059 51 51 51
-0.051032387 0.20923892 0.79198128 54 54 54
0.010016385 0.20858556 0.7923066 70 54 48
0.012140402 0.20738478 0.79364157 69 55 47
0.015611808 0.20659848 0.79497188 49 39 29
0.020089708 0.20890953 0.79190874 68 63 60
0.023386106 0.20771083 0.79344881 69 66 61
0.026726086 0.20775917 0.79459864 73 72 65
0.030046571 0.20709033 0.79471326 84 82 74
0.033830579 0.20759656 0.79440898 69 65 57
0.037325822 0.20784065 0.79388529 68 64 56
0.040729586 0.20767961 0.79300845 67 63 55
0.043983258 0.20859112 0.79216945 66 61 54
0.047618359 0.20785117 0.79342669 64 56 50
0.051932517 0.20665522 0.79486424 90 80 69
0.05582577 0.20743045 0.79460865 68 57 45
0.058300957 0.20784311 0.79308027 82 69 57
0.061266065 0.20889615 0.79205316 128 119 102
0.1162575 0.20922658 0.79197824 68 67 60
-0.057016589 0.2117938 0.79190516 57 57 57
-0.056021754 0.2111441 0.79324782 53 53 53
-0.051130373 0.20986792 0.79237962 48 48 48
0.0095547931 0.2112149 0.79295659 60 46 39
0.011588817 0.21124227 0.79405439 58 43 35
0.017049043 0.21179776 0.79253 56 46 42
0.019643152 0.21130785 0.79320002 54 47 42
0.022257861 0.21097986 0.79436022 65 58 53
0.025713798 0.20999137 0.79510254 57 53 47
0.038065132 0.21115144 0.79498357 51 46 38
0.041056328 0.21122327 0.79416597 63 56 49
0.044242404 0.2113045 0.79329914 65 59 51
0.046978209 0.21193992 0.79221117 66 60 52
0.053054102 0.21112378 0.79304516 73 63 56
0.053852648 0.21071534 0.79322183 57 48 41
0.058894143 0.21098322 0.79424274 72 64 53
0.061661158 0.21143574 0.79266697 86 72 58
0.10725924 0.21223934 0.79463595 53 51 46
0.11243007 0.21033765 0.79371351 56 55 48
0.11575514 0.21128638 0.79433203 77 76 69
0.11796509 0.21115015 0.79239833 75 74 67
-0.054779544 0.21464951 0.79375809 52 52 54
0.0066252761 0.21530727 0.79213375 60 49 42
0.0089434823 0.21451761 0.79348844 53 42 34
0.012109512 0.21511744 0.79298633 61 49 39
0.016039498 0.2149144 0.79307336 68 57 50
0.018662989 0.21451168 0.79441702 55 46 40
0.041812211 0.21485822 0.79506356 86 73 66
0.044691864 0.21461233 0.79413712 59 50 42
0.047816873 0.2149784 0.79262471 60 51 43
0.051510748 0.21518034 0.79340339 57 47 40
0.053628437 0.21382691 0.79414499 62 52 45
0.059787549 0.21404614 0.79472208 58 50 39
0.062054157 0.21490692 0.79320365 67 53 41
0.10058005 0.21631056 0.79379934 54 52 48
0.10469662 0.21406698 0.79317027 55 53 49
0.11606866 0.21494478 0.79510212 81 80 73
0.11810511 0.21432877 0.79292488 78 77 70
-0.054250147 0.21734938 0.79302353 52 52 54
-0.051927153 0.21878411 0.79411048 50 49 53
0.0062923906 0.21848428 0.7926178 55 44 36
0.0085763447 0.21804987 0.79352432 52 40 31
0.011938699 0.21822472 0.79355288 50 40 30
0.015439296 0.21773945 0.79438072 61 51 42
0.018138833 0.2169589 0.79499024 54 43 36
0.045044333 0.21724333 0.7947486 59 50 42
0.047779698 0.21828331 0.79367727 67 58 50
0.050520342 0.21889564 0.79233384 63 54 46
0.062334519 0.21821441 0.79362321 73 57 46
0.063994139 0.21940081 0.79208767 85 68 58
0.097377852 0.21869263 0.79312599 44 42 38
0.10077627 0.21705991 0.79389524 61 59 55
0.11670566 0.21861029 0.79288483 80 78 72
0.11723541 0.21883039 0.79232347 89 85 79
-0.051238935 0.2213359 0.79351473 50 49 52
-0.049207702 0.22285415 0.79482228 48 46 47
0.003248435 0.22315642 0.79197848 56 43 36
0.0055347169 0.22202931 0.7931363 57 46 38
0.0084557729 0.22187915 0.79319918 59 46 36
0.012018823 0.22164439 0.79437453 57 45 37
0.048719656 0.22133034 0.7944448 65 56 48
0.0514112 0.22183043 0.79320329 64 55 47
0.05437072 0.22250174 0.79231882 69 59 50
0.058694381 0.22253767 0.79228145 71 57 41
0.062897362 0.22135423 0.79384464 84 67 58
0.065264404 0.22256224 0.79310405 72 57 45
0.090689965 0.22323947 0.79366362 46 44 40
0.094283551 0.22130674 0.79258245 47 45 41
0.096864372 0.22154783 0.79292446 47 45 41
0.10059658 0.22254486 0.79450113 37 37 33
0.10458313 0.22308087 0.79380697 39 40 38
0.10830375 0.22296566 0.79419112 42 43 39
0.11060465 0.22312567 0.7948997 45 44 37
0.11483762 0.22231698 0.79408902 84 81 72
0.11733113 0.22046098 0.7918244 92 88 82
-0.049928337 0.22456527 0.79296124 52 49 53
-0.048259489 0.22549231 0.79395235 50 48 46
0.0029098676 0.22588967 0.79248685 61 45 37
0.0053534876 0.22559616 0.79377413 63 49 41
0.0085341884 0.22529733 0.79380697 60 48 40
0.011817898 0.22575235 0.7945925 59 49 41
0.05169576 0.22482094 0.79447746 54 45 37
0.055048425 0.22515079 0.79312509 56 47 38
0.05840243 0.2257123 0.7929709 77 66 55
0.061536908 0.22649646 0.79267955 67 54 43
0.066282175 0.22398923 0.79383194 52 40 27
0.069080658 0.22509861 0.79349113 56 44 33
0.071889192 0.22666226 0.79389155 54 44 35
0.087498166 0.22567837 0.79449642 44 36 27
0.092271149 0.22600052 0.79431641 39 37 33
0.094071522 0.22545762 0.7938031 38 36 32
0.097465523 0.225096 0.79268527 38 37 33
0.10082534 0.22453871 0.79270089 40 40 37
0.10375553 0.22450969 0.79238355 40 41 38
0.10839065 0.22464068 0.79235923 40 40 36
0.11150151 0.22596101 0.7933991 54 50 45
0.1146067 0.22389452 0.79171729 91 88 75
-0.047577694 0.22840112 0.79310286 52 49 45
-0.045183249 0.2302389 0.79347324 47 45 40
-0.029751102 0.22960871 0.79242921 45 45 45
-0.0267343 0.23049942 0.79462951 45 45 45
-0.00046878745 0.22976449 0.79257351 47 34 26
0.0018100733 0.22876474 0.79310375 65 50 43
0.0050460123 0.22885527 0.79364079 61 49 42
0.0087502934 0.22912915 0.79446739 60 51 43
0.053024486 0.22735569 0.79481107 59 53 46
0.055233914 0.22782417 0.79467928 52 46 39
0.058719236 0.2283733 0.79435116 56 50 43
0.062133119 0.22899142 0.79356223 54 44 37
0.065079637 0.2297134 0.79285359 55 43 36
0.067464247 0.23038518 0.79272968 49 36 31
0.073402926 0.22806196 0.79317105 51 42 33
0.076202288 0.22947763 0.79335308 47 40 33
0.079979546 0.23008743 0.79371011 51 47 41
0.08321631 0.22955981 0.79304141 46 40 33
0.08819519 0.22830617 0.79316288 40 37 32
0.091729358 0.22776145 0.79219711 39 37 33
0.11171921 0.22889204 0.79334432 55 48 41
-0.04659782 0.23248845 0.79276001 51 44 38
-0.045019172 0.23242995 0.79363763 58 54 50
-0.041097533 0.23256183 0.79359657 62 61 60
-0.037888311 0.2326533 0.79312301 49 48 47
-0.033644747 0.23391846 0.79322338 42 40 39
-0.027059551 0.23163292 0.79189664 43 43 43
-0.023307465 0.23252544 0.79445171 45 44 44
-0.0014569794 0.23254248 0.7934593 41 29 23
0.0023581835 0.23249862 0.79298168 54 42 35
0.0050027762 0.2324367 0.79412383 57 46 39
0.0091265142 0.23137185 0.79507792 68 59 51
0.063651457 0.23121293 0.79399413 47 38 32
0.065986373 0.23149589 0.79408157 47 35 29
0.068995163 0.23222598 0.79332507 49 37 31
0.072716027 0.23294468 0.79343224 44 34 28
0.076491624 0.2315231 0.793378 52 43 34
0.080266766 0.23108232 0.79255426 48 42 36
0.082003191 0.23119344 0.79195547 50 46 40
0.086220846 0.23411161 0.79505134 52 50 48
0.091132112 0.23379408 0.79509699 52 50 51
0.1016084 0.23306322 0.79460019 63 58 60
0.10900278 0.23232086 0.7936964 70 66 58
0.1118487 0.23238747 0.79302084 80 72 55
-0.04654213 0.23586957 0.79269469 82 74 62
-0.045019493 0.23572627 0.79358548 89 82 72
-0.032316387 0.23499829 0.79353654 41 40 39
-0.029414644 0.23564665 0.79294205 45 44 44
-0.027189024 0.23670702 0.79304802 42 41 42
-0.024498926 0.23721112 0.79301691 39 40 43
-0.019611403 0.2349495 0.79404664 46 44 45
-0.016535465 0.23636067 0.79425061 44 42 43
-0.0037701526 0.23768908 0.79370791 52 41 38
-0.0020253591 0.23633426 0.79302043 47 36 31
0.0017342656 0.23606734 0.79367954 54 43 35
0.0041747354 0.23448494 0.79484671 50 38 31
0.073000416 0.23446243 0.79372579 41 32 27
0.076421104 0.23510569 0.79350394 44 36 32
0.07954251 0.23552299 0.79344279 54 47 42
0.083360121 0.23564839 0.79298133 57 55 51
0.086878106 0.23559022 0.79294735 52 51 48
0.090591669 0.23556629 0.79296577 52 50 49
0.094156824 0.23450534 0.79376096 54 52 52
0.09760575 0.23499531 0.79250252 56 54 51
0.10249859 0.23460418 0.79460454 63 58 55
0.108135 0.23594344 0.79331779 59 55 46
0.11190742 0.23509386 0.79371661 79 68 49
-0.044331107 0.23962016 0.79367739 69 63 47
-0.023124663 0.23890516 0.79428142 38 38 38
-0.019549597 0.24029315 0.7935034 38 38 39
-0.011150126 0.24006282 0.79208833 55 52 51
-0.0086857565 0.24066518 0.79343188 49 44 41
-0.0051198229 0.24000151 0.79345918 53 46 40
-0.0018674748 0.23894626 0.79352713 46 36 28
0.00045126985 0.23812754 0.79401284 53 42 33
0.1060195 0.23955001 0.79465693 78 74 68
0.10746709 0.23921843 0.79339957 69 63 51
-0.044151377 0.24340233 0.79365677 72 66 48
-0.018368661 0.24173558 0.79312897 30 30 27
-0.015397832 0.24202518 0.79278266 36 35 35
-0.012197373 0.24230993 0.79437703 40 38 38
-0.0088860467 0.24235018 0.79350162 48 44 42
-0.0064549795 0.24165992 0.7935648 53 47 41
0.10761228 0.24321395 0.7933777 73 67 57
-0.044111084 0.24692753 0.79341519 79 72 57
0.10871908 0.24683708 0.79327524 78 72 59
-0.044127546 0.25064978 0.79327154 78 72 60
-0.042521939 0.24904004 0.79351306 88 86 87
0.10927563 0.24997482 0.79359663 78 71 58
-0.044579163 0.25375021 0.79334903 80 73 64
0.10926177 0.25269678 0.7951628 83 79 71
-0.044575732 0.25725034 0.79334396 50 47 42
0.10985553 0.25673297 0.79280692 78 74 66
0.11058705 0.25769815 0.79327685 73 69 61
-0.045451254 0.26057279 0.79318571 70 68 64
0.11086526 0.26097158 0.79444087 67 63 55
0.11148856 0.26519048 0.79465199 51 47 39
0.0054320442 -0.046193987 0.79671812 82 96 93
0.020517556 -0.047556262 0.79670954 87 103 83
0.021674803 -0.048604116 0.79769868 77 93 73
0.10574988 -0.047370419 0.795995 89 107 89
0.10867607 -0.047167696 0.79675555 92 112 91
0.11170726 -0.046952724 0.79704624 96 114 91
0.11551212 -0.046840757 0.79683602 92 112 86
0.11896846 -0.047369279 0.79667002 85 105 78
0.12238592 -0.047429804 0.79648834 89 106 93
-0.00089351705 -0.043282222 0.79690015 86 103 78
0.0018103468 -0.044772092 0.7970131 75 95 76
0.0051589035 -0.045618072 0.79696679 81 96 93
0.0081517277 -0.045054115 0.79633546 81 94 95
0.013390467 -0.043353871 0.79555953 81 97 92
0.019265346 -0.044456806 0.79694784 86 98 78
0.1123753 -0.04575409 0.79853356 97 113 93
0.11514796 -0.045855761 0.7979309 92 112 87
0.11912307 -0.045726832 0.79844111 84 104 80
0.12221026 -0.04521507 0.79816651 90 104 95
-0.011428228 -0.039196219 0.79643697 76 86 71
-0.0090670809 -0.039829854 0.79698974 84 98 79
-0.0053818831 -0.0408055 0.79692984 85 100 78
-0.0026467619 -0.042096473 0.79682994 91 106 80
0.013198869 -0.042374752 0.79547977 81 97 95
0.017420243 -0.041909762 0.79653513 98 113 101
0.018331904 -0.04224303 0.79708153 95 109 93
-0.015621279 -0.037623994 0.79801106 82 90 81
-0.012596631 -0.038586311 0.7971893 77 87 73
0.027836297 0.1936757 0.79550034 55 49 40
0.029292602 0.19457455 0.79591674 73 64 55
0.033884875 0.19361129 0.79598296 77 72 62
0.036468882 0.19421266 0.79576886 70 65 55
0.029983483 0.19678089 0.79673964 80 79 68
0.034557592 0.19696543 0.79751414 79 75 65
0.0371411 0.19711873 0.79660469 68 62 53
0.039491676 0.19750965 0.79538298 74 68 59
0.018864796 0.20169868 0.79521364 82 73 67
0.021812329 0.20159431 0.79579705 64 64 62
0.026829254 0.20195997 0.79570627 69 67 65
0.030158447 0.20082484 0.79756361 79 75 66
0.034947135 0.20032619 0.79846317 91 84 75
0.037889045 0.20013818 0.7974413 68 62 53
0.039913751 0.201363 0.79631561 76 72 62
0.044517629 0.20180662 0.79558784 78 71 64
-0.054173771 0.2051132 0.7971493 47 47 47
-0.052840952 0.20543103 0.79860604 45 45 45
0.013466428 0.20547886 0.79623342 52 36 30
0.015993921 0.20437066 0.79580218 70 58 51
0.019417653 0.20391786 0.79597032 75 70 64
0.023312403 0.20442548 0.79691356 58 54 50
0.026770052 0.20394719 0.79701728 66 61 58
0.030060638 0.20436373 0.79727584 80 75 70
0.033627391 0.20461823 0.79615211 79 76 72
0.037236217 0.2042553 0.79611939 80 78 72
0.040929288 0.20409679 0.79692495 76 71 62
0.044427417 0.20450015 0.79597205 78 70 60
0.047977868 0.20523338 0.79576325 86 77 65
-0.054591253 0.20765318 0.79690391 49 48 49
-0.05172503 0.20788732 0.79842556 48 47 51
0.013363144 0.20782799 0.79644674 61 45 39
0.016065484 0.20781238 0.79639435 59 49 39
0.019257989 0.20757605 0.79751903 69 61 53
0.022642549 0.20705256 0.79803646 50 44 39
0.026618902 0.20761466 0.79728365 54 49 44
0.030757181 0.20757005 0.79710871 66 61 55
0.034021832 0.20818305 0.79755974 69 63 56
0.037503246 0.20758608 0.7969467 81 76 68
0.040981669 0.2075666 0.79704857 69 61 53
0.044188432 0.20766942 0.79734081 64 55 46
0.047486726 0.2077239 0.79685402 74 65 56
0.050774217 0.20783278 0.79587054 89 80 70
0.054837525 0.20862234 0.79554957 71 61 51
-0.054306131 0.21073198 0.7963537 51 50 53
-0.052121781 0.21178396 0.79765117 48 47 53
0.012943792 0.21133953 0.79613638 59 45 38
0.015773732 0.2112074 0.79746169 46 35 29
0.019431006 0.21077394 0.79816216 65 55 49
0.023549806 0.21169743 0.79632753 62 54 48
0.026636358 0.21121156 0.79655403 62 57 50
0.030117283 0.21108639 0.79650182 63 58 50
0.033765644 0.21107329 0.79615879 65 59 51
0.037232473 0.21139768 0.79642087 61 53 45
0.040741902 0.21057643 0.79749185 60 50 43
0.04466508 0.21060137 0.79820466 59 49 41
0.048040144 0.21157934 0.79767513 64 54 47
0.05096525 0.21115091 0.796646 60 50 42
0.055046748 0.21166481 0.79604226 60 51 40
0.058052033 0.21224685 0.79543716 68 60 49
0.10788602 0.21189965 0.79691964 54 53 46
0.11109382 0.21148483 0.79723674 70 69 62
0.11403186 0.2115297 0.79582059 75 74 67
-0.053547598 0.21428117 0.79584599 50 49 52
-0.051429361 0.21447663 0.79738247 47 46 51
-0.049532257 0.21529463 0.79835945 46 46 46
-0.04363586 0.21603011 0.79848963 45 45 45
0.010391515 0.21522963 0.79558015 46 35 28
0.012773948 0.21480538 0.79668498 48 35 28
0.015360535 0.21450965 0.79812181 47 36 30
0.020255897 0.21464629 0.79631352 62 53 46
0.022910664 0.2148363 0.79713923 66 57 49
0.026768124 0.21461478 0.79818171 67 59 50
0.030235287 0.21424603 0.79797202 63 54 46
0.03364991 0.2144237 0.79757208 59 46 39
0.037269361 0.21462972 0.79700023 63 50 43
0.040693507 0.21474761 0.79601055 63 50 43
0.044069074 0.2153783 0.79618967 58 48 41
0.048717622 0.21453311 0.79846913 69 60 52
0.05202182 0.21475142 0.79721868 61 52 42
0.055065323 0.21532589 0.79701829 63 55 44
0.058490347 0.21492754 0.79597038 60 52 41
0.060964029 0.21645634 0.79537481 87 79 68
0.1124649 0.21426792 0.7984851 86 85 78
0.11434582 0.21606229 0.79693401 83 82 75
-0.050417166 0.21845436 0.79642028 48 47 49
-0.048304699 0.21805488 0.79812461 46 46 46
0.0093870843 0.21844035 0.79615468 49 38 31
0.012642789 0.21837623 0.79731596 51 39 31
0.015984349 0.21894677 0.79651988 59 48 41
0.019349143 0.21828568 0.79671061 60 51 43
0.02249632 0.21827054 0.79827565 63 54 46
0.025875615 0.21760505 0.79869783 66 57 49
0.030477578 0.21691144 0.79856479 68 57 50
0.033946812 0.21761976 0.79834056 61 48 41
0.037370451 0.21797736 0.79790282 55 42 35
0.040849101 0.21799749 0.79709947 62 49 42
0.044115845 0.21868336 0.79605335 69 58 51
0.051727202 0.21737535 0.79827452 71 61 53
0.055301644 0.21800609 0.79813582 92 84 73
0.058618654 0.21826261 0.79689574 77 69 58
0.060859196 0.2190398 0.79571402 58 50 39
0.094552383 0.22004318 0.79609764 42 40 36
0.097252175 0.21712321 0.79832757 53 47 42
0.10171593 0.2197156 0.79811287 38 37 34
0.10484594 0.2198132 0.79771417 37 38 36
0.10829073 0.21978772 0.79818779 39 40 37
0.11379203 0.21855441 0.79707372 86 85 78
-0.047588553 0.22184181 0.79716706 48 47 47
-0.045680076 0.22247475 0.79819208 47 47 47
-0.034424316 0.22294122 0.79874182 45 45 45
0.0067354701 0.22293669 0.79543316 61 50 43
0.0092191324 0.22225893 0.79633856 53 42 34
0.012163111 0.22187276 0.79727781 52 41 32
0.015840234 0.22193639 0.79637557 61 52 44
0.01927992 0.22192481 0.79761696 62 54 46
0.022466389 0.22146696 0.79850811 62 53 45
0.037731834 0.22078092 0.79841006 56 43 36
0.040981043 0.221793 0.79797137 62 49 42
0.044413157 0.22204879 0.79689735 74 63 56
0.047378708 0.22197148 0.79561311 55 46 38
0.056592233 0.22070777 0.79872352 102 94 83
0.058931332 0.22147331 0.79788822 62 54 43
0.062084533 0.22230171 0.79686689 65 56 44
0.064054132 0.22295889 0.79560757 69 55 41
0.091686927 0.22180238 0.79641199 44 42 38
0.095165715 0.22181483 0.79720604 38 36 32
0.096174233 0.22311568 0.79628891 37 35 31
0.10021124 0.22174092 0.79591048 37 36 33
0.10496658 0.22105786 0.79630303 38 38 36
0.10899413 0.22162783 0.79671538 41 41 36
0.11078294 0.22242811 0.79746372 53 51 44
0.11379085 0.22109997 0.79597402 90 86 80
-0.047224022 0.22479549 0.79607671 47 45 41
-0.044884332 0.22561391 0.79789168 47 47 47
-0.033699889 0.2250202 0.79620564 45 45 45
-0.030529175 0.22626536 0.79774952 45 45 45
0.0061626774 0.22643821 0.79596585 58 44 37
0.0090611232 0.22549412 0.79694718 59 45 37
0.012554741 0.22531734 0.79677415 61 50 42
0.016210457 0.22509609 0.79692346 54 47 38
0.01912085 0.22551005 0.79806095 50 44 35
0.041771475 0.22414726 0.79856044 60 48 38
0.044507835 0.22508423 0.7982806 78 68 59
0.047680754 0.22515857 0.79679787 68 60 52
0.051015787 0.226164 0.79564536 58 51 43
0.059101366 0.22661054 0.79546952 65 50 39
0.063319162 0.22438292 0.79808986 60 52 41
0.065899171 0.22511603 0.79713535 59 48 37
0.068912074 0.2263357 0.79653609 53 43 33
0.072319053 0.22680929 0.79678816 41 32 24
0.087221339 0.22596462 0.79702061 40 38 34
0.091682963 0.22434667 0.79763407 37 35 31
0.092633173 0.22466496 0.79598296 39 37 33
0.096072271 0.22414333 0.7958706 38 36 32
0.11113075 0.22528094 0.79703325 52 47 43
-0.044582121 0.22899505 0.79691494 48 47 46
-0.028853456 0.227916 0.79696119 45 45 45
-0.026162809 0.22862642 0.79812932 45 45 45
-0.02334445 0.22983727 0.79829037 43 43 43
-0.021284692 0.23026919 0.79847014 38 38 38
0.0028353017 0.22979592 0.79650414 64 50 41
0.0057131494 0.22903346 0.79686075 60 46 40
0.0087774852 0.22872855 0.79749596 61 49 42
0.012425249 0.2286375 0.79601663 52 43 35
0.01569834 0.2290073 0.79686272 55 46 38
0.018731421 0.2290208 0.79838884 49 43 34
0.045742292 0.22737677 0.79863715 55 49 40
0.048204195 0.22862302 0.79781651 66 60 53
0.051317427 0.22896895 0.79705197 59 53 46
0.054975029 0.22965331 0.7960304 45 39 32
0.058745716 0.22922577 0.79618317 52 44 37
0.061678961 0.22978766 0.79655915 50 38 31
0.06498836 0.23038575 0.7956264 48 37 32
0.06972336 0.22728921 0.79708791 44 34 25
0.073596507 0.22800063 0.7974987 43 34 27
0.076135971 0.22919174 0.79674828 49 45 39
0.079474233 0.22946291 0.79730308 47 43 38
0.083162278 0.22835289 0.79717773 41 37 31
0.087395042 0.22746305 0.796278 39 37 33
0.10947766 0.22938725 0.79709381 73 69 58
0.11115505 0.2288297 0.79686964 70 63 48
-0.044380557 0.23307909 0.79688418 67 60 52
-0.041072685 0.23361021 0.79718477 68 65 64
-0.03735406 0.23307933 0.79714292 68 66 67
-0.033976562 0.23312822 0.7964474 58 56 57
-0.031646945 0.23377344 0.79693186 64 62 63
-0.00079634815 0.23375949 0.79559141 34 23 18
0.0014280265 0.23226339 0.79700309 68 56 50
0.005868983 0.23290388 0.79622471 58 47 40
0.008595245 0.23272806 0.7969749 51 41 33
0.012282085 0.23253007 0.79716295 55 46 38
0.015669715 0.231906 0.79793048 54 46 38
0.052224711 0.23200589 0.79791415 46 40 33
0.055000316 0.23264746 0.79778218 46 40 33
0.058570161 0.23259006 0.79705304 54 48 41
0.062295236 0.23254612 0.79660493 45 37 31
0.065575011 0.23272222 0.79671514 42 31 26
0.069105059 0.23301369 0.79665548 49 38 33
0.07321661 0.23268765 0.79684347 47 38 33
0.0762266 0.23270543 0.79726386 53 46 41
0.080023721 0.23392832 0.79673773 61 56 55
0.083913974 0.23346527 0.79648906 54 52 50
0.086712845 0.23316018 0.79711246 46 44 42
0.08964131 0.23330076 0.79587317 46 44 42
0.094049737 0.23141892 0.79782414 55 53 54
0.097702488 0.23170453 0.79663002 53 52 50
0.10052671 0.2328116 0.79577065 60 57 56
0.10803371 0.23245874 0.79706073 64 60 53
0.11120551 0.23225813 0.79684889 76 68 41
-0.046354312 0.23570251 0.79523557 84 73 54
-0.044457935 0.23553397 0.79695588 87 78 62
-0.039186679 0.23487693 0.79741096 77 75 76
-0.038907863 0.2346198 0.79676294 45 43 44
-0.034355074 0.23527756 0.79633296 45 44 42
-0.029429559 0.23584639 0.79651189 57 56 56
-0.026736228 0.23696177 0.79697365 54 52 53
-0.015290433 0.23545547 0.79565042 45 43 44
-0.013019683 0.23607209 0.79644418 47 43 42
-0.0097979167 0.23696394 0.79762286 50 45 44
-0.0012302238 0.23615971 0.79609209 55 44 40
0.0017272993 0.23679571 0.79711807 52 42 35
0.0052186176 0.23571724 0.79723245 56 46 38
0.0088273287 0.23509581 0.7980243 64 56 48
0.013132088 0.23447618 0.79866755 52 46 37
0.058895301 0.23492499 0.7984702 54 48 41
0.061650772 0.23487031 0.79807228 54 47 40
0.065469496 0.23471425 0.79826063 45 35 29
0.069155097 0.23487303 0.79764605 47 35 31
0.072679758 0.2347436 0.79688007 46 38 34
0.076111645 0.23523284 0.79562438 47 41 36
0.079962865 0.23434114 0.79641122 60 55 54
0.10518777 0.23626196 0.79753304 83 79 70
0.1070317 0.23599419 0.79693222 64 60 55
0.11070104 0.23474845 0.7965036 73 64 37
-0.043198135 0.23951715 0.79640895 74 67 47
-0.042215645 0.24025379 0.79781145 72 66 51
-0.024868298 0.24000843 0.79785621 43 43 40
-0.023975752 0.23876803 0.79752767 44 42 42
-0.019357949 0.24042192 0.79764038 37 36 33
-0.016361043 0.24075684 0.7968244 34 33 30
-0.011757362 0.23991424 0.79780412 38 36 34
-0.0086733056 0.2404757 0.79686135 39 35 32
-0.0050557191 0.2399857 0.79697686 49 43 39
-0.0018212681 0.23923719 0.7971375 48 40 36
0.00087476947 0.23840584 0.79744363 48 38 33
0.0044207415 0.23803097 0.79843831 43 36 27
0.10618607 0.23947802 0.79731697 59 55 50
0.10670277 0.24045937 0.79672819 66 63 55
-0.043042626 0.24323802 0.79644048 76 68 50
-0.0422167 0.24318865 0.79779059 79 73 61
-0.026479429 0.24270734 0.79837477 50 50 47
-0.022673393 0.2419637 0.79806465 38 37 31
-0.020603361 0.24168631 0.79778725 33 31 27
-0.015954047 0.24169788 0.79690725 36 36 36
-0.012459968 0.24217027 0.79696655 38 37 39
-0.0088326838 0.24190822 0.79638547 48 45 46
-0.0063098646 0.24164534 0.79655319 61 56 55
0.10596874 0.24325809 0.79711235 57 52 45
0.10684457 0.24331485 0.79660553 66 63 54
-0.043213781 0.24701579 0.79644656 66 59 44
-0.041767534 0.24713545 0.79711664 83 80 74
0.10635747 0.24496989 0.79617721 55 49 40
0.10751322 0.24678448 0.79647738 73 70 60
-0.043487933 0.2499494 0.79684663 65 58 46
-0.041942988 0.25044435 0.79667932 93 91 89
0.10807154 0.24982391 0.79731852 69 63 55
-0.043986272 0.2525548 0.795865 74 66 53
-0.041639455 0.25389695 0.79742187 92 91 88
0.10882305 0.25331196 0.79724228 68 64 53
-0.042854816 0.2583943 0.7972247 38 36 32
-0.042164411 0.25651607 0.79779053 51 50 46
0.10989961 0.25738183 0.79720902 86 79 64
0.11010362 0.25903931 0.79782027 79 70 53
-0.043132044 0.2595652 0.79739654 53 51 47
0.11060842 0.26104051 0.79731113 78 71 58
0.11074865 0.26313967 0.79789478 68 61 46
0.11169538 0.26686031 0.79527044 28 24 16
0.021008354 -0.046370078 0.79878223 73 90 66
0.023196196 -0.047238525 0.80036825 85 100 82
0.0252594 -0.047898248 0.80199087 80 96 77
0.10890087 -0.04653145 0.79911488 103 117 104
-0.0038501006 -0.042626835 0.80060661 111 128 104
-0.0015408274 -0.043751795 0.80053616 82 99 77
0.0016835202 -0.04531958 0.80029452 73 94 81
0.0045718797 -0.045475326 0.7998082 77 93 90
0.020136775 -0.043901581 0.80032659 85 100 79
0.022382786 -0.045334026 0.80113947 74 89 70
0.11207192 -0.045220017 0.79993069 98 111 97
0.1154895 -0.044447839 0.80048001 90 107 88
0.11886454 -0.044308547 0.80059028 84 104 81
0.12199367 -0.043709166 0.80017334 79 92 81
-0.011311792 -0.039140038 0.79973418 80 94 75
-0.0086688967 -0.039842181 0.80055308 87 101 82
-0.0051757237 -0.041317202 0.80034727 88 102 79
-0.0031972302 -0.04233408 0.80151927 85 100 77
0.018864388 -0.041870832 0.80067855 90 104 87
0.11889675 -0.042269345 0.80187654 80 100 76
0.12165981 -0.042370617 0.80127603 58 73 56
-0.015840035 -0.036536023 0.8001895 77 88 73
-0.01263113 -0.037912663 0.80069292 80 93 75
-0.010324449 -0.038754754 0.80079347 89 103 84
-0.018425791 -0.034564141 0.80137151 71 84 74
-0.016812047 -0.035062216 0.8016085 74 87 72
0.035142079 0.2020081 0.79893804 63 54 46
0.037463367 0.20192991 0.79907984 75 66 58
-0.052322708 0.20555243 0.79924196 46 46 46
0.03108179 0.20508352 0.79942381 66 56 49
0.035371207 0.20274058 0.79921126 51 40 33
0.037547596 0.20431603 0.79966515 61 51 44
0.040076625 0.20482413 0.7991333 65 56 48
-0.053602204 0.20686588 0.79895532 47 47 47
-0.05124345 0.20776479 0.79951578 46 46 46
-0.049263738 0.20765501 0.80080235 45 46 46
0.016301671 0.20901896 0.79893929 74 61 56
0.023506165 0.20862679 0.79903388 50 43 36
0.026855541 0.20815945 0.79922998 54 47 41
0.029682113 0.20784797 0.79934502 71 64 59
0.032745257 0.2080652 0.79966575 55 46 39
0.037822414 0.20750487 0.80120242 61 52 44
0.040479947 0.2077352 0.80008018 57 48 40
0.042799078 0.20807301 0.79932314 68 59 51
-0.050390486 0.21126507 0.7992053 46 46 46
-0.04813046 0.21145025 0.79958582 46 46 46
-0.04546649 0.21184659 0.79984868 45 45 45
0.015639454 0.2116286 0.79966611 66 52 47
0.020214697 0.21217123 0.80038166 57 46 42
0.02256394 0.21124561 0.79998642 58 48 43
0.026651191 0.21089274 0.7998634 56 47 40
0.029964995 0.21135519 0.80036795 62 54 47
0.033884719 0.21117273 0.80013227 64 56 49
0.037090059 0.21158653 0.79979044 62 52 46
0.040766113 0.21135324 0.80038822 58 49 41
0.043730818 0.21157525 0.79925036 54 44 36
0.04677416 0.21253529 0.79916781 75 64 57
0.10870108 0.21232182 0.80007607 73 72 65
0.1112812 0.21243849 0.79914308 76 75 68
-0.048048317 0.21418342 0.7993865 46 46 46
-0.04496203 0.21527067 0.79980117 45 45 45
0.014126283 0.21305627 0.79876143 53 40 33
0.016199224 0.21510437 0.79959482 49 38 32
0.019344214 0.21461773 0.80031705 53 43 38
0.022883963 0.21479307 0.80071592 53 44 38
0.026544536 0.21497929 0.80039889 59 50 43
0.03047812 0.21483448 0.80080593 67 57 49
0.034021448 0.21498963 0.8007015 67 57 50
0.037417259 0.21486767 0.80053866 63 52 46
0.041142277 0.21484362 0.80105144 58 48 41
0.044205777 0.21451452 0.80011016 59 50 43
0.047052041 0.21555848 0.79966122 71 62 53
0.05176571 0.21612012 0.79901385 73 65 54
0.09850046 0.21593973 0.79910642 57 48 42
0.10151619 0.21455516 0.80015069 57 54 49
0.10605869 0.213117 0.80208015 70 69 62
0.10986568 0.21509683 0.80216509 91 90 83
0.11164224 0.2143811 0.80003548 87 86 79
-0.047186583 0.21746047 0.79922748 46 46 46
-0.044610403 0.21838835 0.7999689 45 45 45
-0.040886685 0.21940082 0.79970592 45 45 45
0.015866142 0.21836224 0.80003279 53 43 37
0.019251402 0.21828413 0.80117017 53 44 38
0.023046466 0.21814035 0.80114275 59 50 44
0.026549933 0.21817756 0.8002916 57 48 40
0.030020332 0.21811441 0.80031997 65 55 48
0.033388823 0.21862726 0.80035603 64 52 45
0.03717459 0.21871272 0.801045 71 60 53
0.040860884 0.21802437 0.80175942 57 46 39
0.044530336 0.21809182 0.80152839 65 54 47
0.047780801 0.21821982 0.80037212 62 53 44
0.051307667 0.21887487 0.79946417 63 55 45
0.054954015 0.21917324 0.79904413 103 95 84
0.09187898 0.21999139 0.79999983 48 39 33
0.094691291 0.21870449 0.79936904 50 45 40
0.098229095 0.21881036 0.80044675 43 41 37
0.10179865 0.21847761 0.80037642 38 37 34
0.10472919 0.21839951 0.80054456 38 38 36
0.10818156 0.21892667 0.80093199 45 45 41
0.11164925 0.21909574 0.7994563 87 86 79
-0.044014223 0.22203049 0.79987216 45 45 45
-0.041082472 0.2212864 0.80110496 44 44 44
-0.037188504 0.22133277 0.80021638 45 45 45
-0.034066249 0.22318387 0.79971975 45 45 45
0.013237258 0.22177339 0.79935461 56 44 38
0.016033353 0.2218726 0.80081064 58 49 43
0.018492004 0.22178689 0.80172879 57 50 44
0.023260761 0.22222486 0.79957807 60 51 44
0.026689896 0.22173572 0.80013037 58 49 41
0.030128511 0.2212842 0.80083328 60 50 43
0.033794217 0.22189738 0.80007952 58 45 38
0.037162475 0.22168517 0.80004394 65 52 45
0.039696615 0.2215357 0.8000825 67 54 47
0.045061536 0.22049488 0.80228937 61 50 45
0.048351128 0.2214985 0.80145895 55 47 37
0.051344775 0.22165434 0.80089253 63 54 45
0.055262901 0.22214836 0.79966187 91 83 72
0.057665672 0.22300783 0.79884595 49 41 30
0.061436329 0.22335568 0.79893398 65 57 44
0.09082336 0.22204018 0.80078095 41 38 34
0.093770742 0.22226638 0.79999822 38 36 32
0.097395726 0.22033738 0.80184484 39 37 33
0.099835411 0.22018062 0.79913402 37 37 34
0.1092171 0.22146982 0.80066943 44 41 35
0.11101025 0.22152388 0.79930758 65 63 56
-0.043480732 0.22518656 0.79954797 45 45 45
-0.042133503 0.22564602 0.80125946 44 44 44
-0.032369655 0.2244471 0.80043042 46 46 46
-0.030311938 0.22434554 0.80150241 44 44 44
-0.027297717 0.22519663 0.80218524 45 45 45
0.010230144 0.22682458 0.79889172 57 44 37
0.012738657 0.22561908 0.79974794 60 49 41
0.015575514 0.22530705 0.80143946 62 54 48
0.020173695 0.2250057 0.799779 59 50 42
0.023141475 0.22546597 0.79951233 57 48 40
0.026711514 0.22556758 0.80044526 51 42 34
0.030207429 0.22504546 0.80092406 60 50 43
0.033735063 0.22566223 0.80051208 59 46 41
0.03741562 0.22544535 0.80010235 71 58 51
0.040674653 0.22550917 0.79926169 66 54 44
0.043728106 0.22527254 0.79889405 78 67 56
0.048720594 0.22416385 0.80180341 50 42 31
0.051521748 0.22475532 0.80171096 65 57 47
0.055309769 0.22519229 0.80109203 58 50 38
0.05860218 0.22527048 0.80047822 57 49 37
0.062188067 0.2258281 0.80003583 52 43 33
0.065334544 0.22642031 0.79951966 47 38 30
0.069686487 0.22687671 0.79989815 40 31 23
0.071487933 0.22675799 0.79918623 42 33 25
0.077492826 0.22711487 0.80221146 46 44 40
0.080836877 0.22676252 0.80226582 43 34 28
0.086604059 0.2251984 0.80134171 39 35 31
0.089413941 0.22504361 0.79928017 37 35 31
0.1092137 0.2253823 0.80091202 53 47 43
0.11043151 0.22590479 0.79911679 45 38 34
-0.043237932 0.22910523 0.79971546 47 45 42
-0.042177022 0.22916864 0.80139446 45 44 41
-0.033365607 0.23019493 0.80172729 56 54 55
-0.031313881 0.2306793 0.80206227 49 47 48
-0.028057849 0.23045583 0.80194026 34 32 33
-0.022490283 0.2303126 0.79889816 41 41 41
-0.020057075 0.22936943 0.79985642 40 40 40
0.0060091703 0.23010775 0.79965913 51 37 36
0.0093916282 0.22926301 0.80021709 58 47 41
0.012262215 0.22905816 0.80038983 54 43 36
0.014741889 0.22834083 0.80170429 60 51 45
0.020645717 0.22911131 0.799465 52 44 36
0.023173925 0.22890167 0.80031347 50 41 34
0.026499853 0.22870876 0.80145144 52 43 37
0.030425947 0.2279502 0.80186403 55 44 40
0.033937011 0.22855203 0.80167317 55 43 39
0.037276264 0.22898892 0.80130225 54 42 37
0.040803544 0.22899319 0.80062032 60 49 39
0.044158138 0.22886784 0.79960442 62 53 43
0.046941694 0.22947289 0.79893351 60 54 46
0.059735667 0.22759643 0.80176568 46 38 28
0.062669277 0.22774321 0.80170518 45 36 28
0.066105746 0.22767603 0.8008008 46 36 29
0.069486655 0.22814687 0.80103773 40 31 25
0.072694451 0.22834979 0.80059642 47 40 34
0.076297484 0.22879523 0.80068696 49 44 40
0.079554185 0.22852336 0.800713 41 38 33
0.083348937 0.22814749 0.80042356 40 38 34
0.087003432 0.22995752 0.80126464 46 44 42
0.090159409 0.23035018 0.7995016 50 48 47
0.093931116 0.22848383 0.80174577 54 52 52
0.097712137 0.22900507 0.80038244 54 54 51
0.10087933 0.22860919 0.80126208 60 57 54
0.10364634 0.22991261 0.80160594 71 67 58
0.10881338 0.22904068 0.80075991 77 70 54
0.11033631 0.22935949 0.79931766 88 81 59
-0.043421 0.23277025 0.79978895 70 65 52
-0.042252969 0.2325367 0.80110902 70 67 56
-0.036918797 0.23234428 0.80045217 70 68 69
-0.033838507 0.23170689 0.80061364 62 60 61
-0.030104365 0.23263021 0.80074567 50 48 49
-0.027032455 0.23295972 0.80146182 34 32 32
-0.016471259 0.23158953 0.79958618 44 42 43
-0.013623025 0.23288602 0.80083543 43 38 37
-0.010612844 0.23416112 0.80113745 42 37 36
0.0019557336 0.23361626 0.79896176 55 44 39
0.0047553433 0.23261757 0.80049628 47 35 32
0.0091242278 0.23195533 0.80042899 56 45 39
0.012113367 0.23239607 0.80108517 50 40 33
0.016285116 0.23374005 0.79990333 50 44 35
0.01936483 0.23249277 0.80070019 52 47 38
0.022311622 0.23132905 0.80149043 48 42 37
0.041282829 0.23213728 0.80172062 54 44 38
0.044599298 0.23229711 0.80089843 50 42 37
0.047975592 0.23266254 0.80017024 54 48 41
0.050904728 0.23336427 0.79940057 57 51 44
0.053775359 0.23419707 0.79900223 50 44 37
0.062319659 0.23134458 0.80047178 45 34 29
0.065554656 0.23179105 0.80075687 48 37 32
0.069556184 0.23256621 0.80021566 50 39 34
0.07243897 0.23202784 0.80088711 54 48 45
0.075857535 0.2314202 0.80089086 53 49 45
0.079857305 0.23191743 0.79993457 52 50 49
0.083174929 0.23200892 0.7991088 49 47 45
0.091103725 0.23104304 0.79935741 52 50 51
0.10508025 0.23308086 0.80094147 78 74 66
0.10862058 0.2324792 0.80047834 68 61 37
0.1100969 0.23244599 0.79919004 71 63 36
-0.043663945 0.23518728 0.80019504 76 67 50
-0.041328453 0.23529558 0.80037886 72 67 55
-0.037269056 0.23651922 0.80100888 64 59 51
-0.029621378 0.23457022 0.79910803 53 51 52
-0.026579628 0.23553483 0.7999779 44 42 43
-0.01515471 0.23654579 0.80186981 31 29 25
-0.011211369 0.23504454 0.80094224 43 38 37
-0.0088599669 0.23678415 0.800991 41 37 35
-0.0066222078 0.23751248 0.80202639 37 30 28
-0.00075140479 0.23728704 0.80083674 44 36 33
0.0023329719 0.23649506 0.80070013 49 38 34
0.0054829917 0.23687893 0.80049944 49 41 34
0.0087889694 0.23625864 0.80040765 52 45 37
0.012149823 0.23543152 0.800825 50 43 35
0.015405779 0.23483337 0.80102408 53 47 39
0.048486076 0.23521981 0.80187684 48 42 36
0.051567435 0.23530589 0.80077362 49 43 36
0.055220015 0.23549345 0.80034363 46 40 33
0.058639254 0.23600055 0.80072886 44 39 33
0.062123057 0.23593543 0.80055678 50 44 40
0.065636761 0.23540457 0.79986554 51 43 38
0.068603404 0.23455083 0.8005482 57 53 50
0.10554036 0.23643604 0.80021298 69 64 60
-0.04273292 0.23803519 0.79880446 65 61 44
-0.041674718 0.23944783 0.80058002 55 52 42
-0.032184038 0.24022365 0.80195063 55 54 50
-0.020196224 0.24123932 0.79953796 45 43 41
-0.014450605 0.23813242 0.80033934 28 26 22
-0.011582386 0.24037544 0.80082011 41 39 41
-0.0086892387 0.23943023 0.80060434 43 40 39
-0.0051517957 0.23983586 0.80012167 47 41 39
-0.0016212587 0.23961079 0.80048311 44 39 36
0.0017123042 0.23870456 0.80044031 46 41 41
0.0053045116 0.23862694 0.8010093 44 40 39
0.10524138 0.23946509 0.80045778 68 65 60
-0.041373357 0.24302265 0.80056101 52 51 47
-0.031379532 0.24243312 0.80035174 57 57 54
-0.019536495 0.24346723 0.80111533 44 43 41
-0.015982945 0.24328664 0.80064958 44 43 41
-0.012127484 0.24286798 0.8008092 43 42 43
-0.008756048 0.24169968 0.79917192 42 40 41
-0.0038565076 0.24291448 0.80029976 47 44 43
-0.0028781074 0.24223496 0.80057162 43 39 38
0.10494712 0.24290425 0.80048162 63 60 55
0.10675202 0.24410458 0.80040139 75 71 64
-0.041789763 0.24652793 0.80038887 51 52 47
0.10487768 0.24667525 0.80000567 56 53 47
0.10715098 0.24698474 0.80034989 77 73 66
-0.041292083 0.24915934 0.79990625 76 76 70
0.10556578 0.24993455 0.80056441 54 50 44
0.10758062 0.2506431 0.80055392 69 64 55
-0.040558651 0.25386173 0.80077064 79 79 77
0.10587961 0.25311294 0.80123401 50 46 40
0.10877034 0.25382921 0.8008675 73 65 51
-0.041069798 0.25601998 0.80108702 36 36 33
0.10963849 0.25693351 0.80113471 76 65 46
0.10992984 0.26010773 0.80093092 54 44 22
0.0010058701 -0.046383265 0.80333215 77 92 78
0.026463257 -0.046786893 0.80307907 75 90 76
0.028798267 -0.046759516 0.80328381 75 90 78
-0.0041858498 -0.043163355 0.80477476 85 99 78
-0.0019594366 -0.044529013 0.80416751 79 94 73
0.00082279294 -0.045867354 0.80399156 78 93 76
0.020642048 -0.042977422 0.80336523 86 103 83
0.02307581 -0.044105433 0.80393368 78 95 77
0.026368516 -0.044430535 0.80469918 88 103 85
0.029870177 -0.044857744 0.80469781 76 92 73
0.033687834 -0.045118887 0.80487126 78 93 74
0.03612313 -0.045377303 0.80541497 80 94 75
0.11420236 -0.042634767 0.8025558 110 115 114
0.11827877 -0.043349348 0.80251145 79 101 76
-0.0081721107 -0.039868575 0.80420065 91 104 85
-0.0056702346 -0.041486632 0.80384684 100 114 91
0.019255819 -0.041884392 0.80401576 87 102 88
0.022997594 -0.042513311 0.80556816 76 96 78
0.116748 -0.042190433 0.80234373 107 116 99
-0.01462663 -0.036050946 0.80286133 84 101 77
-0.012468255 -0.036865689 0.80402011 85 100 83
-0.0097244317 -0.038347732 0.80378234 88 100 85
-0.021593938 -0.032395504 0.80346131 64 76 63
-0.019505737 -0.033115357 0.80403215 79 95 78
-0.016107991 -0.034356806 0.80408776 82 98 77
-0.013940446 -0.035266344 0.80419958 86 102 81
-0.022356845 -0.031330243 0.80456334 77 91 74
-0.020547988 -0.031736743 0.80507416 87 105 86
0.037635077 0.21194051 0.80266339 54 45 37
0.039766561 0.21246013 0.80254972 57 48 40
0.10648681 0.21291995 0.80547708 105 104 97
0.10788382 0.21289471 0.80367672 97 96 89
0.018913705 0.21506183 0.80272692 54 43 39
0.030834388 0.21394192 0.80244714 51 42 34
0.03326197 0.21539561 0.80343121 52 43 35
0.037644651 0.21483003 0.80370957 58 49 41
0.039984036 0.21536961 0.80311322 65 56 48
0.10228471 0.21431035 0.80442715 60 59 53
0.10604542 0.2131701 0.80442619 92 91 84
0.10807475 0.21408777 0.80436915 101 100 93
-0.03981477 0.21954814 0.80526483 44 44 44
-0.037464879 0.21968174 0.80470395 43 43 43
0.019672763 0.21821795 0.80356723 59 50 46
0.023464737 0.21926387 0.8026253 50 41 35
0.025743557 0.21945603 0.80256015 57 48 42
0.030997446 0.21800393 0.80437464 56 47 39
0.034364857 0.21779913 0.80494553 69 60 52
0.037427574 0.2180793 0.80523497 60 50 43
0.040971447 0.21841002 0.80389291 67 56 50
0.043437943 0.21933317 0.80289871 65 54 48
0.046394736 0.21943852 0.80261612 79 69 63
0.090615585 0.21995907 0.80450672 54 45 39
0.093775235 0.21804385 0.80488819 56 51 46
0.09851025 0.2197741 0.80336869 40 38 34
0.10143411 0.21898362 0.80367297 40 38 34
0.10464808 0.21856456 0.80410421 39 39 35
0.10723542 0.21882182 0.80360168 53 54 48
0.1102555 0.21658519 0.80235577 98 97 90
-0.040713124 0.22178304 0.80395806 44 43 44
-0.037575953 0.22059479 0.80324805 45 45 45
-0.033320382 0.22145423 0.80365229 44 44 44
-0.031286456 0.2207731 0.80522752 44 44 44
-0.025400557 0.22346166 0.80360383 43 43 43
-0.024521083 0.22316724 0.80428505 43 43 43
0.019702824 0.22201417 0.80304891 55 48 42
0.023341775 0.22203057 0.80344725 49 42 35
0.026468765 0.22220136 0.80323285 54 46 39
0.030127671 0.22235538 0.80306745 57 45 38
0.033391166 0.22239213 0.80273187 59 47 40
0.037130244 0.22230783 0.80274671 55 44 37
0.040991761 0.22177464 0.80402845 63 54 47
0.044145238 0.22185712 0.80376238 63 54 48
0.047098737 0.22226354 0.80305117 67 58 51
0.051007673 0.22360955 0.80249447 65 56 50
0.086843513 0.22226284 0.80504704 49 40 34
0.090966031 0.22340636 0.80321306 40 38 34
0.094129443 0.22229235 0.80362719 39 37 33
0.097818039 0.22124636 0.80442262 40 38 34
0.10072387 0.2206174 0.80530906 40 39 35
0.10561226 0.22132653 0.80533588 41 41 34
0.10767128 0.22185968 0.80391335 42 40 35
-0.041584607 0.22530943 0.80429727 44 44 46
-0.036253747 0.22700815 0.80513114 65 63 64
-0.025463581 0.22459957 0.8037371 46 46 46
-0.022585712 0.22482245 0.80459452 42 42 42
-0.021021577 0.22554277 0.80487281 43 42 42
0.016982947 0.22574906 0.80273265 46 42 36
0.019142615 0.22543266 0.80357802 51 46 40
0.02304839 0.22531651 0.80451965 45 40 35
0.026869494 0.22573842 0.80466419 45 39 34
0.030226 0.22545563 0.80421555 51 42 36
0.033765983 0.22542977 0.80404317 52 41 35
0.037336048 0.22524536 0.80410784 56 45 40
0.040476218 0.22458191 0.80505168 56 48 42
0.044584364 0.2249608 0.80510932 63 56 49
0.047649428 0.22544868 0.80375493 54 47 38
0.050972417 0.22612527 0.80344099 51 44 34
0.054163098 0.2266376 0.80311632 48 40 28
0.058533728 0.22702521 0.80241787 46 38 27
0.07419268 0.22634287 0.80576074 56 54 50
0.07594981 0.22675872 0.80463523 48 46 42
0.080016457 0.22658269 0.80449635 40 36 32
0.083758719 0.22613628 0.80444163 42 39 36
0.086697586 0.22640488 0.80403793 42 40 37
0.09074913 0.22534524 0.80490237 43 41 37
0.09407109 0.22611499 0.8047328 51 49 47
0.097786285 0.22692926 0.80402279 55 53 51
0.10141805 0.22660302 0.80533928 64 60 54
0.10638345 0.22506534 0.8056674 47 41 36
0.10760305 0.22529441 0.80368596 53 47 42
-0.041624278 0.22895993 0.80382633 51 51 44
-0.036105361 0.22892484 0.80398417 65 63 64
-0.033703845 0.22877128 0.80389708 54 52 53
-0.030385166 0.22910866 0.80368072 45 43 44
-0.018365361 0.22856957 0.80345303 45 42 41
-0.016440986 0.2298833 0.80320483 43 39 37
0.013661395 0.23038366 0.8027519 55 45 39
0.016129626 0.22915271 0.80348438 50 43 37
0.018989533 0.22886227 0.80470818 51 45 39
0.022515355 0.22821991 0.80509013 47 43 37
0.027456043 0.22940838 0.80339128 51 42 38
0.030124281 0.22997245 0.80361348 53 44 40
0.033502232 0.22941026 0.80355299 55 45 41
0.037175741 0.22862945 0.80436867 50 40 36
0.045945179 0.22762491 0.80522996 61 57 49
0.04847531 0.22796638 0.80528116 46 42 33
0.051305775 0.22814667 0.80491209 51 45 36
0.054955747 0.22795321 0.80433023 53 45 34
0.058766194 0.22821903 0.80426234 52 43 34
0.062085837 0.22896889 0.80396396 49 40 33
0.06581071 0.22906707 0.80398178 50 41 36
0.069341861 0.22922908 0.80386019 49 40 35
0.072327986 0.22932385 0.80447328 51 44 40
0.076279067 0.22836161 0.80368793 46 41 37
0.080351606 0.22801402 0.80397332 42 40 37
0.083124086 0.22843844 0.8039791 39 37 34
0.086874254 0.22757357 0.80435055 41 39 36
0.090532988 0.22803099 0.80295789 50 48 46
0.097546816 0.22765918 0.80316067 56 55 53
0.10179456 0.22801745 0.80448323 69 65 59
0.10501816 0.22945131 0.80414718 81 77 63
0.10732016 0.22906986 0.80354732 79 72 49
-0.041454367 0.23229095 0.80393291 79 77 62
-0.036064003 0.23217265 0.80425483 76 74 75
-0.029487409 0.23103206 0.80268258 41 39 40
-0.027101487 0.23182184 0.80236852 35 33 34
-0.018772846 0.23426001 0.80472213 39 37 33
-0.016092798 0.23348191 0.80528653 42 42 41
-0.012314451 0.23374455 0.80368692 35 32 29
0.0059417943 0.23326607 0.80297297 42 32 27
0.0087211402 0.23293568 0.80388904 47 36 32
0.013218244 0.23283514 0.80403417 54 46 40
0.015863676 0.23230182 0.80447537 45 38 33
0.019758146 0.2333139 0.80444127 52 47 41
0.023090078 0.23250227 0.80424249 51 47 41
0.026383221 0.23154332 0.80440384 48 43 38
0.030523069 0.23148619 0.80539548 52 44 40
0.033855699 0.23202303 0.80446064 51 41 36
0.037279133 0.23250999 0.80399525 50 41 35
0.04058627 0.23330551 0.80379605 47 39 34
0.044458356 0.23396403 0.80378211 36 29 27
0.046824969 0.23384452 0.80252731 27 21 16
0.065916911 0.23236004 0.80458564 51 44 41
0.068916336 0.23143616 0.80383682 51 44 40
0.071303599 0.23079158 0.80414152 48 37 32
0.10294642 0.23156832 0.80579108 69 65 55
0.10487942 0.23250481 0.80444717 69 63 49
0.10703379 0.23217428 0.80313563 68 60 35
-0.043016855 0.23508814 0.80326211 75 65 56
-0.040884931 0.2358879 0.8042044 63 57 46
-0.036805358 0.23707674 0.80409378 95 88 74
-0.035313044 0.23728676 0.80366087 66 61 47
-0.027041508 0.23563834 0.80560088 56 56 53
-0.022732243 0.2344052 0.8055827 53 53 50
-0.020752581 0.23433265 0.8051523 43 44 36
-0.015697362 0.23522583 0.8046667 42 41 40
-0.012171687 0.23615052 0.80421728 40 40 39
-0.0091481246 0.23613681 0.80408883 41 39 38
-0.0052442895 0.23690613 0.80434191 51 49 47
-0.0015257543 0.2362209 0.80429214 38 35 32
0.0018002895 0.23645987 0.80417913 41 35 33
0.0052288179 0.23631701 0.80403084 41 32 28
0.0089959828 0.23674071 0.80425292 57 52 47
0.012416271 0.23603696 0.80412596 50 44 37
0.015737107 0.2351203 0.8045845 49 44 38
0.01822374 0.23466238 0.80439645 58 53 46
0.0381773 0.23436907 0.80573761 47 41 34
0.040739257 0.23447926 0.80451059 42 36 32
0.045030497 0.2348284 0.8044591 36 30 28
0.047909644 0.23546362 0.80414301 38 33 30
0.051498458 0.23617345 0.80389661 46 43 39
